x,y,z
3.2772558,1.5676587,-5.532292
3.2659662,1.5466667,-5.5589585
3.25492,1.5733334,-5.5733337
3.289589,1.5409921,-5.532292
3.2153769,1.468501,-5.598463
3.2420435,1.4933335,-5.584088
3.2533333,1.4666667,-5.561826
3.2978406,1.4666667,-5.5244055
3.289589,1.4933335,-5.5366964
3.2533333,1.4133334,-5.559741
3.2266667,1.3866667,-5.571373
3.298445,1.3866667,-5.5302067
3.2882516,1.4133334,-5.5346117
3.2504833,1.2843744,-5.5279107
3.2533333,1.3110411,-5.5381174
3.2266667,1.3333334,-5.5541544
3.2901933,1.3377078,-5.5302067
3.2528868,1.8933334,-5.6266665
3.2543054,1.8666667,-5.6533337
3.2568567,1.8133334,-5.6266665
3.2543628,1.7866666,-5.6533337
3.256857,1.7333333,-5.6266665
3.2487526,1.7066667,-5.6533337
3.2463799,1.6533334,-5.6266665
3.235616,1.6266667,-5.6533337
3.2082722,1.5656238,-5.660637
3.2236493,1.5466667,-5.6339707
3.2392697,1.5733334,-5.6266665
3.2153769,1.4951676,-5.607304
3.2439916,1.8933334,-5.706667
3.2405877,1.8666667,-5.7333336
3.248407,1.8133334,-5.706667
3.2426305,1.7866666,-5.7333336
3.240482,1.7333333,-5.706667
3.2311864,1.7066667,-5.7333336
3.2286928,1.6533334,-5.706667
3.2260382,1.6266667,-5.7333336
3.217341,1.5922905,-5.706667
3.2090685,1.582233,-5.7333336
3.20254,1.4433202,-5.745829
3.20254,1.4335452,-5.745829
4.0795307,1.1213006,-5.5993524
4.081049,1.1213006,-5.5993524
4.0795307,1.1053075,-5.5993524
4.081049,1.1053075,-5.5993524
4.0795307,1.1213006,-5.6030293
4.081049,1.1213006,-5.6030293
4.0795307,1.1053075,-5.6030293
4.081049,1.1053075,-5.6030293
2.8569567,1.2533333,-5.786667
2.8505182,1.2266667,-5.8133335
2.9523578,1.2369658,-5.825968
2.9321985,1.2533333,-5.799301
2.9125652,1.2266667,-5.786667
3.1334288,1.2411242,-5.8250184
3.1448398,1.2266667,-5.7983513
3.1598735,1.2533333,-5.786667
2.8558908,1.1733333,-5.786667
2.857472,1.1466666,-5.8133335
2.9327245,1.1936564,-5.8133335
2.9403667,1.1792136,-5.786667
3.1314108,1.1838777,-5.7983513
3.1404784,1.1572112,-5.8133335
3.1531153,1.1466666,-5.786667
2.866119,1.0933334,-5.786667
2.8719134,1.0666667,-5.8133335
3.0857873,1.0933334,-5.786667
3.1094186,1.0666667,-5.8133335
3.1520724,1.0933334,-5.786667
3.1436064,1.0666667,-5.8133335
2.8772204,0.9743403,-5.798282
2.8747284,1.001007,-5.8133335
2.873907,1.0133333,-5.786667
2.8835788,0.9743403,-5.8249493
3.1113777,0.98490417,-5.792483
3.1104186,1.0115708,-5.8133335
3.106035,1.0133333,-5.786667
3.1241705,1.0115708,-5.8191495
3.138618,0.9866667,-5.792483
3.1489863,1.0133333,-5.786667
2.8733037,0.9066667,-5.791916
2.8705242,0.93333334,-5.771616
2.8853512,0.93333334,-5.8249493
2.8817723,0.9066667,-5.8185825
3.1144414,0.9066667,-5.7809935
3.1058192,0.93333334,-5.7658167
3.1452453,0.9066667,-5.7751775
3.1344478,0.93333334,-5.7809935
2.866341,0.84995866,-5.8336334
2.8596447,0.85333335,-5.8069663
2.854195,0.8266667,-5.786667
2.8817723,0.87662536,-5.8336334
3.1144414,0.87303436,-5.7751775
3.1307976,0.87303436,-5.7751775
2.8548052,0.7733334,-5.786667
2.8592768,0.7466667,-5.8133335
2.8626592,0.6933333,-5.786667
2.853955,0.6666667,-5.8133335
2.8705316,1.2266667,-5.877263
2.8568726,1.2533333,-5.862408
2.94151,1.2216612,-5.898203
2.9523578,1.2369658,-5.8561535
2.925691,1.2266667,-5.8710084
2.9066668,1.2533333,-5.893416
3.1212933,1.2144575,-5.8905845
3.1347222,1.2411242,-5.866667
3.143166,1.2533333,-5.8933334
2.8752267,1.1466666,-5.866937
2.865758,1.1733333,-5.8548546
2.9066668,1.1669897,-5.866937
2.925691,1.1936564,-5.8548546
2.9115438,1.140323,-5.8787494
2.94151,1.1936564,-5.8715367
2.9197204,1.1669897,-5.8933334
3.1212933,1.1705828,-5.9038825
3.1303608,1.1466666,-5.8772154
3.1212933,1.1838777,-5.8905845
3.1303608,1.1572112,-5.866667
2.877508,1.0666667,-5.8569093
2.8727345,1.0933334,-5.8520823
2.8923008,1.0933334,-5.905416
2.887424,1.0666667,-5.883576
3.119041,1.0666667,-5.8541
3.1138022,1.0933334,-5.850549
3.133238,1.0666667,-5.8435516
3.129068,1.0933334,-5.8541
2.877508,1.0276736,-5.8448267
2.8718464,0.9692291,-5.9020524
2.887424,0.9958958,-5.9020524
2.8910027,0.9866667,-5.8753858
2.887424,1.0276736,-5.8714933
2.8910027,1.001007,-5.866667
3.119041,1.0382375,-5.8435516
3.1241705,1.0382375,-5.8435516
2.8718464,0.93333334,-5.8882847
2.8684916,0.9066667,-5.906233
2.8853512,0.9066667,-5.852899
2.8835788,0.93333334,-5.8616185
2.876645,0.87662536,-5.8795657
2.8629863,0.84995866,-5.866667
2.8518038,0.8266667,-5.8933334
2.8817723,0.87662536,-5.852899
2.8541806,0.7733334,-5.866667
2.8556895,0.7466667,-5.8933334
2.8520818,0.6933333,-5.866667
2.8334115,0.6666667,-5.8933334
2.9458394,1.2749945,-5.9523168
2.9273496,1.2483279,-5.9466667
2.9105687,1.2266667,-5.973334
2.9709592,1.2749945,-5.9256506
2.90294,1.1733333,-5.9466667
2.898243,1.1466666,-5.973334
2.8957808,1.0933334,-5.9466667
2.899476,1.0666667,-5.973334
2.8718464,0.9692291,-5.930045
2.8888752,0.9692291,-5.9567113
2.8962994,0.9958958,-5.9466667
2.9048715,1.0133333,-5.973334
2.879724,0.9073046,-5.983378
2.8715706,0.93333334,-5.9567113
2.8682158,0.9066667,-5.9466667
2.8888752,0.9339712,-5.983378
2.8651867,0.85333335,-5.9466667
2.8544042,0.8266667,-5.973334
2.7337635,0.7271016,-5.9907823
2.8425303,0.7733334,-5.9466667
2.8405318,0.7466667,-5.973334
2.7337635,0.7135953,-5.9907823
2.8350213,0.6933333,-5.9466667
2.8359008,0.6666667,-5.973334
2.8798044,1.2011755,-6.0794992
2.8845923,1.2278421,-6.0794992
2.8944783,1.2266667,-6.052833
2.9069846,1.2533333,-6.0266666
2.8798044,1.1990609,-6.0794992
2.8898861,1.1990609,-6.052833
2.910125,1.1723943,-6.0533338
2.9136047,1.1466666,-6.0266666
2.8758526,1.0511485,-6.069969
2.900239,1.0778152,-6.069969
2.9088109,1.0666667,-6.043303
2.9122913,1.0933334,-6.0266666
2.8758526,1.0133333,-6.0590014
2.8704283,0.9866667,-6.0690317
2.8974473,0.9866667,-6.015699
2.8885722,1.0133333,-6.0323353
2.874576,0.9339712,-6.0423656
2.8743002,0.9073046,-6.0266666
2.8638244,0.9066667,-6.0533338
2.8888752,0.9339712,-6.015699
2.8551111,0.85333335,-6.0266666
2.8380327,0.8266667,-6.0533338
2.7337635,0.7271016,-6.005756
2.8353276,0.7733334,-6.0266666
2.827271,0.7466667,-6.0533338
2.7337635,0.7135953,-6.005756
2.8333554,0.6933333,-6.0266666
2.8342896,0.6666667,-6.0533338
2.8789134,1.2057322,-6.1333337
2.8787177,1.2011755,-6.1066666
2.9112592,1.2545087,-6.0986195
2.9333334,1.2347003,-6.1252856
2.9066668,1.2125906,-6.1333337
2.9642272,1.2601914,-6.1519523
2.8798044,1.1723943,-6.0908594
2.8729632,1.1466666,-6.117526
2.8718767,1.1733333,-6.1333337
2.9001677,1.1457276,-6.117526
2.9268343,1.1577737,-6.1333337
2.9269054,1.1457276,-6.090766
2.9333334,1.1577737,-6.1174326
2.961898,1.1320461,-6.1440988
2.8731587,1.1044819,-6.117526
2.8690112,1.0778152,-6.1066666
2.8619368,1.0666667,-6.1333337
2.9268343,1.114583,-6.144193
2.9066668,1.099065,-6.117526
2.9535723,1.114583,-6.1174326
2.9269054,1.099065,-6.1066666
2.961898,1.114583,-6.1440988
2.8633537,1.0133333,-6.1066666
2.8652654,0.9866667,-6.1333337
2.8618646,0.93333334,-6.1066666
2.859339,0.9066667,-6.1333337
2.8442204,0.85333335,-6.1066666
2.841237,0.8266667,-6.1333337
2.8132076,0.75798064,-6.141051
2.8176806,0.7466667,-6.1143847
2.826993,0.7733334,-6.1066666
2.804473,0.71254116,-6.1143847
2.8228815,0.68587446,-6.1333337
2.8373015,0.6666667,-6.1066666
2.9066668,1.2380817,-6.1660986
2.9333334,1.2601914,-6.190541
2.9642272,1.2601914,-6.184442
2.953501,1.1320461,-6.168667
2.961898,1.1320461,-6.168667
2.8198254,1.1199286,-6.213251
2.8436997,1.093262,-6.2133336
2.863292,1.0666667,-6.186667
2.953501,1.114583,-6.168667
2.961898,1.114583,-6.168667
2.8678966,1.0133333,-6.186667
2.874461,0.9866667,-6.2133336
2.8693042,0.93333334,-6.186667
2.8496501,0.9066667,-6.2133336
2.8367019,0.85333335,-6.186667
2.8325644,0.8266667,-6.2133336
2.8193786,0.731314,-6.193759
2.8325863,0.75798064,-6.186667
2.847166,0.7733334,-6.2133336
2.8184085,0.68587446,-6.1670923
2.8377874,0.6933333,-6.193759
2.850037,0.6666667,-6.2133336
2.8996868,1.2533333,-6.308708
2.8867743,1.2266667,-6.291771
2.8927975,1.1733333,-6.3030624
2.8860235,1.1466666,-6.2893085
2.8238742,1.093262,-6.2400603
2.8505406,1.0666667,-6.249176
2.8533335,1.0933334,-6.2620883
2.8925395,1.0933334,-6.3062463
2.8865163,1.0666667,-6.288695
2.8794897,0.9866667,-6.2543235
2.8766973,1.0133333,-6.2491155
2.889021,1.0133333,-6.3024487
2.8825047,0.9866667,-6.2809906
2.8581102,0.9066667,-6.2714486
2.8575997,0.93333334,-6.2452087
2.8827953,0.93333334,-6.2985415
2.8802907,0.9066667,-6.2981153
2.878886,0.84861875,-6.319574
2.8569963,0.85333335,-6.2929068
2.844909,0.8266667,-6.266667
2.8802907,0.87528545,-6.319574
2.8595111,0.7733334,-6.266667
2.8655965,0.7466667,-6.2933335
2.91066,1.2533333,-6.346667
2.9089022,1.2266667,-6.3733335
2.903952,1.1733333,-6.346667
2.9053695,1.1466666,-6.3733335
2.900731,1.0933334,-6.346667
2.8985205,1.0666667,-6.3733335
2.8928332,1.0133333,-6.346667
2.8940442,0.9866667,-6.3733335
2.887727,0.91631407,-6.3749
2.888018,0.9066667,-6.3482337
2.8905225,0.93333334,-6.346667
2.8747454,0.87528545,-6.3482337
2.8736315,0.84861875,-6.346667
2.865397,0.8266667,-6.3733335
2.8802907,0.87528545,-6.3215666
2.7935607,2.9796603,-2.6133335
2.78034,2.973221,-2.5866668
2.7137725,2.8862276,-2.5662277
2.78034,2.9535608,-2.6133335
2.7867792,2.9403398,-2.5866668
2.7262278,2.8862276,-2.5662277
2.7137725,2.8614933,-2.5662277
2.7262278,2.8614933,-2.5662277
2.6360388,2.7332904,-2.571496
2.6543417,2.7332904,-2.571496
2.6287453,2.6666667,-2.5778937
2.6247845,2.6933334,-2.571496
2.7076752,2.678784,-2.5629601
2.6810083,2.6933334,-2.5744557
2.6666667,2.6666667,-2.5808535
2.7242882,2.6521173,-2.5629601
2.6219063,2.5866668,-2.5758398
2.6106517,2.6133335,-2.5663977
2.6933334,2.6133335,-2.588308
2.6666667,2.5866668,-2.59479
2.7776217,2.595516,-2.5665197
2.750955,2.6133335,-2.56948
2.746667,2.5866668,-2.5884302
2.8084607,2.5688493,-2.5665197
2.7935607,2.9664392,-2.646439
2.7935607,2.9535608,-2.646439
2.8064392,2.9535608,-2.646439
2.7183723,2.5616279,-2.7976851
2.7275615,2.5616279,-2.7976851
2.8604596,2.6532445,-2.8667552
2.8932445,2.6532445,-2.8667552
2.7183723,2.5616279,-2.8054047
2.7275615,2.5616279,-2.8054047
2.8604596,2.6267552,-2.8667552
2.8932445,2.6267552,-2.8667552
2.8604596,2.6532445,-2.8932445
2.8604596,2.6267552,-2.8932445
-1.2814642,0.68423575,-2.0831988
-1.3023245,0.6666667,-2.1098654
-1.3228661,0.6933333,-2.1333334
-1.3730893,0.85333335,-2.213787
-1.3862127,0.8266667,-2.2268765
-1.3314904,0.8266667,-2.173543
-1.3458483,0.85333335,-2.1871207
-1.3731236,0.7733334,-2.205783
-1.3861015,0.7466667,-2.2189062
-1.339517,0.7466667,-2.165573
-1.3456421,0.7733334,-2.1791162
-1.3729779,0.6933333,-2.1975536
-1.3912278,0.6666667,-2.2186472
-1.3480685,0.6666667,-2.165314
-1.3538748,0.6933333,-2.170887
0.8004271,0.24058543,-3.2546577
0.8004271,0.24301015,-3.3066669
0.80206084,0.24242473,-3.3333333
0.8016337,0.24376681,-3.3866668
0.80314696,0.24134208,-3.4133334
0.8015132,0.24450119,-3.4666667
0.80467224,0.24315913,-3.4933333
0.80315906,0.24650152,-3.5466669
0.80650145,0.2433424,-3.5733333
0.8033424,0.2433424,-3.60434
0.8813914,0.3995385,-5.7618995
-2.886244,1.123162,-3.9157379
-2.886244,1.0933334,-3.9107792
-2.893657,1.0666667,-3.9150414
-2.887413,1.0133333,-3.9123154
-2.8914547,0.9866667,-3.9172738
-2.8840418,0.95615864,-3.9172738
-2.980485,1.133477,-3.984395
-3.122334,1.0458182,-3.997763
-3.100959,1.0458182,-3.997763
-2.980485,1.0933334,-3.9730806
-3.0030901,1.0666667,-3.9886858
-3.100959,1.0359077,-3.997763
-2.9826052,1.0133333,-3.9796073
-2.9987361,0.9866667,-3.9909222
-2.9761312,0.9485856,-3.9909222
-3.1907883,1.2533333,-4.078868
-3.1924253,1.2266667,-4.0765033
-3.1924253,1.193614,-4.0776353
-3.061504,1.1358908,-4.059937
-3.149001,1.0458182,-4.0245895
-3.1733334,1.0577487,-4.0512567
-3.1466668,1.0712078,-4.0533333
-3.0476258,1.0666667,-4.0085583
-3.0742924,1.0801257,-4.0332704
-3.100959,1.0592773,-4.0266666
-3.0881708,1.1067924,-4.059937
-3.1485949,0.98350424,-4.0777426
-3.1466668,1.0060785,-4.051076
-3.1733334,1.0327452,-4.0512567
-3.149001,1.0359077,-4.0245895
-3.0742924,1.0359077,-4.001955
-3.0933335,1.009241,-4.026364
-3.0666668,0.9866667,-4.041256
-3.1219285,0.9486589,-4.0777426
-3.0933335,0.9486589,-4.065968
-3.0666668,0.9364096,-4.0682254
-2.9768682,0.85333335,-4.061562
-2.9895813,0.8266667,-4.073273
-2.972713,0.7847111,-4.073273
-3.1907883,1.2533333,-4.0877824
-3.1657586,1.2291366,-4.114449
-3.1733334,1.2523559,-4.1411157
-3.1390917,1.20247,-4.1226273
-3.1657586,1.193614,-4.0959606
-3.1733334,1.1669472,-4.1151557
-3.1466668,1.1466666,-4.1201596
-3.1733334,1.0920563,-4.099195
-3.1466668,1.1067924,-4.104199
-3.1752617,0.98350424,-4.09759
-3.1219285,0.9219922,-4.0886335
-3.1485949,0.93333334,-4.106224
-3.1733334,0.9066667,-4.1286035
-3.0666668,0.90974295,-4.0903783
-3.0933335,0.89532554,-4.099012
-3.1466668,0.85333335,-4.134921
-3.1733334,0.8266667,-4.149634
-3.0666668,0.85333335,-4.112175
-3.0933335,0.8266667,-4.1257043
-3.133337,0.7666715,-4.1572413
-3.1600037,0.7466667,-4.1534796
-3.1733334,0.7733334,-4.1501594
-3.076629,0.74000484,-4.155737
-3.0933335,0.7666715,-4.152978
-3.0666668,0.7733334,-4.139474
-3.1866705,0.71182114,-4.1562386
-3.049962,0.713878,-4.155737
-3.133337,0.74000484,-4.1669846
-3.1600037,0.71182114,-4.1669846
-3.1466668,0.68639845,-4.193651
-3.1733334,0.67434716,-4.213333
-3.049962,0.713878,-4.1654835
-3.1053288,0.69457734,-4.220318
-3.1466668,0.65585935,-4.241615
-3.1733334,0.6546153,-4.2528157
1.7334601,-0.0040469156,-3.2533333
1.7520512,-0.005863409,-3.2266667
1.8133334,-0.015427441,-3.2266667
1.7866666,-0.017223384,-3.2533333
1.892315,-0.06469331,-3.2777169
1.8933334,-0.04093004,-3.2510502
1.8666667,-0.016514352,-3.2266667
1.9189818,-0.08082357,-3.2777169
1.5958996,-0.23871633,-3.2031555
1.6533334,-0.2358812,-3.211091
1.6266667,-0.23871633,-3.2142465
1.6923019,-0.2371649,-3.2377574
1.7189685,-0.23262584,-3.2533333
1.7333333,-0.22901027,-3.2266667
1.8133334,-0.22780804,-3.2266667
1.7866666,-0.22677532,-3.2533333
1.8933334,-0.21602829,-3.2266667
1.8666667,-0.22076969,-3.2533333
1.5065097,-0.29613274,-3.2533333
1.4804263,-0.30459028,-3.2266667
1.569233,-0.25125697,-3.2031555
1.5733334,-0.26220807,-3.2298224
1.5466667,-0.28041714,-3.2533333
1.6266667,-0.25095108,-3.240913
1.6533334,-0.2571823,-3.2644243
1.6923019,-0.24623123,-3.2644243
1.457546,-0.34666666,-3.2266667
1.4748813,-0.37333336,-3.2533333
1.4694945,-0.42666668,-3.2266667
1.4766763,-0.45333335,-3.2533333
1.4669986,-0.50666666,-3.2266667
1.4640515,-0.53333336,-3.2533333
1.4448053,-0.62528116,-3.2448022
1.453046,-0.5986145,-3.2266667
1.4578885,-0.58666664,-3.2533333
1.6751379,-0.0029966778,-3.3422961
1.6880755,-0.0029966768,-3.3156295
1.7147422,-0.007043592,-3.3066669
1.7333333,-0.013383869,-3.3333333
1.8133334,-0.02540745,-3.3066669
1.7866666,-0.020387752,-3.3333333
1.9189818,-0.068736255,-3.3098726
1.892315,-0.053429563,-3.3066669
1.8666667,-0.036763452,-3.3333333
1.9189818,-0.08082357,-3.283206
1.7456352,-0.23546097,-3.2886267
1.8133334,-0.23039089,-3.3041003
1.7866666,-0.23546097,-3.3127267
1.8524377,-0.23492993,-3.330767
1.8791044,-0.23339294,-3.3333333
1.8933334,-0.22273901,-3.3066669
1.5191514,-0.31069374,-3.3333333
1.505661,-0.31154242,-3.3066669
1.5733334,-0.28370413,-3.3066669
1.5466667,-0.29857105,-3.3333333
1.6533334,-0.27271602,-3.3066669
1.6266667,-0.28102875,-3.3333333
1.7189685,-0.24623123,-3.2886267
1.7333333,-0.25779825,-3.3152936
1.7066667,-0.27333197,-3.3333333
1.7866666,-0.25156704,-3.3393931
1.8133334,-0.25270995,-3.3574333
1.8524377,-0.24114293,-3.3574333
1.4969128,-0.34666666,-3.3066669
1.5006427,-0.37333336,-3.3333333
1.4857931,-0.42666668,-3.3066669
1.4878775,-0.45333335,-3.3333333
1.4758139,-0.50666666,-3.3066669
1.4835771,-0.53333336,-3.3333333
1.4683795,-0.58666664,-3.3066669
1.4666042,-0.61333334,-3.3333333
1.6751379,-0.0029966778,-3.3683794
1.7066667,-0.009336953,-3.3683794
1.7333333,-0.0063402764,-3.394347
1.7871749,-0.013377356,-3.439301
1.7866666,-0.019717634,-3.4126341
1.8133334,-0.029718194,-3.3866668
1.8933334,-0.048800334,-3.3866668
1.8666667,-0.04677477,-3.4133334
1.9057711,-0.23846301,-3.3623822
1.5191514,-0.31915134,-3.360849
1.5733334,-0.30702862,-3.3825595
1.5466667,-0.31915134,-3.383408
1.6040262,-0.3078773,-3.409226
1.6306927,-0.29671782,-3.4133334
1.6533334,-0.28558484,-3.3866668
1.7333333,-0.28072968,-3.3866668
1.7066667,-0.28466985,-3.4133334
1.8133334,-0.26318753,-3.3866668
1.7866666,-0.27567357,-3.4133334
1.8791044,-0.24114293,-3.3623822
1.8933334,-0.24984005,-3.389049
1.8666667,-0.2603176,-3.4133334
1.5160319,-0.3693653,-3.414182
1.5151833,-0.34666666,-3.3875155
1.5054228,-0.37333336,-3.3866668
1.5466667,-0.34269863,-3.4100747
1.5733334,-0.34619352,-3.4358928
1.6040262,-0.32349494,-3.4358928
1.5133362,-0.4740132,-3.4098165
1.5093681,-0.44734657,-3.4133334
1.4996076,-0.42666668,-3.3866668
1.5216724,-0.4740132,-3.4364831
1.5146476,-0.5180023,-3.4364831
1.5079838,-0.50666666,-3.4098165
1.5000488,-0.53333336,-3.3866668
1.5216724,-0.4913356,-3.4364831
1.4318588,-0.6290192,-3.4199755
1.4613143,-0.60235256,-3.4199755
1.4643816,-0.61333334,-3.3933089
1.4831132,-0.58666664,-3.3866668
1.7533484,-0.0047642286,-3.4942086
1.7605082,-0.0047642277,-3.467542
1.7871749,-0.018141584,-3.4666667
1.8133334,-0.031949725,-3.4933333
1.8933334,-0.0620283,-3.4666667
1.8666667,-0.052439585,-3.4933333
1.6746374,-0.3041923,-3.4933333
1.6519967,-0.3088405,-3.4666667
1.7333333,-0.2846905,-3.4666667
1.7066667,-0.29308003,-3.4933333
1.8133334,-0.27778733,-3.4666667
1.7866666,-0.28286412,-3.4933333
1.8933334,-0.27024227,-3.4666667
1.8666667,-0.27522597,-3.4933333
1.5160319,-0.39603195,-3.458641
1.5222672,-0.39603195,-3.4853075
1.548934,-0.3817918,-3.4933333
1.5733334,-0.35862008,-3.4666667
1.6253302,-0.32349494,-3.4666667
1.621304,-0.33592144,-3.4933333
1.5160319,-0.4206799,-3.458641
1.5216724,-0.44734657,-3.458641
1.5239396,-0.42666668,-3.4853075
1.5324719,-0.45333335,-3.4933333
1.5146476,-0.544669,-3.4536552
1.5223069,-0.544669,-3.480322
1.5239793,-0.5180023,-3.4666667
1.5325116,-0.50666666,-3.4933333
1.4318588,-0.6290192,-3.4527295
1.4562241,-0.6290192,-3.4793963
1.4775382,-0.60235256,-3.4666667
1.5042049,-0.59537625,-3.4933333
1.5146476,-0.5687096,-3.480322
1.5223069,-0.5687096,-3.5069885
1.7533484,-0.0047642286,-3.5329614
1.7960118,-0.00964188,-3.586295
1.7866666,-0.014406108,-3.5596282
1.8133334,-0.028214244,-3.5466669
1.8876337,-0.06297521,-3.577226
1.8933334,-0.06156263,-3.550559
1.8666667,-0.048704106,-3.5466669
1.9143003,-0.087436356,-3.577226
1.6746374,-0.3153518,-3.5282316
1.7045608,-0.3153518,-3.5548983
1.7312274,-0.31399822,-3.5733333
1.7333333,-0.3028859,-3.5466669
1.8133334,-0.28465858,-3.5466669
1.7866666,-0.29629084,-3.5733333
1.8933334,-0.2755313,-3.5466669
1.8666667,-0.27988708,-3.5733333
1.5756005,-0.38575983,-3.5454686
1.6010357,-0.38575983,-3.5721354
1.6223397,-0.35909316,-3.5466669
1.6490065,-0.35458952,-3.5733333
1.6746374,-0.32792285,-3.5548983
1.7045608,-0.32792285,-3.581565
1.5871264,-0.42773354,-3.598802
1.562727,-0.42666668,-3.5721354
1.5445927,-0.45333335,-3.5466669
1.5446324,-0.50666666,-3.5466669
1.549747,-0.53333336,-3.5733333
1.510518,-0.61934716,-3.5733333
1.5000753,-0.62204295,-3.5466669
1.535954,-0.5687096,-3.5466669
1.533647,-0.59268045,-3.5733333
1.8226784,-0.00964188,-3.606526
1.860967,-0.036308546,-3.606526
1.8876337,-0.053333335,-3.610183
1.8933334,-0.026666667,-3.6226306
1.9143003,-0.087436356,-3.6036572
1.757894,-0.31864637,-3.6019988
1.8133334,-0.30740315,-3.614398
1.7866666,-0.31864637,-3.616397
1.856141,-0.30875674,-3.641065
1.8828076,-0.29931065,-3.6533334
1.8933334,-0.28342688,-3.6266668
1.6543691,-0.38125616,-3.615338
1.6916354,-0.38125616,-3.642005
1.7161961,-0.35458952,-3.6266668
1.7428628,-0.3551782,-3.6533334
1.757894,-0.32851157,-3.6286654
1.7866666,-0.32851157,-3.6430635
1.8133334,-0.33522078,-3.6677315
1.856141,-0.32670924,-3.6677315
1.5871264,-0.45440015,-3.6168075
1.5869802,-0.53333336,-3.63129
1.5741067,-0.50666666,-3.6168075
1.514504,-0.6359478,-3.6533334
1.5050219,-0.6373041,-3.6266668
1.5603137,-0.5839708,-3.6144824
1.5733334,-0.60508573,-3.6411493
1.5466667,-0.6303961,-3.6533334
1.9094743,-0.31055394,-3.6935482
1.7449687,-0.3818449,-3.6979818
1.7685179,-0.3818449,-3.7246482
1.7951846,-0.36189967,-3.7333333
1.8133334,-0.34194225,-3.7066667
1.8828076,-0.32670924,-3.6935482
1.8933334,-0.33129248,-3.7202148
1.8666667,-0.33801392,-3.7333333
1.514504,-0.6386437,-3.6893954
1.5377879,-0.6386437,-3.7160618
1.5644547,-0.6372138,-3.7333333
1.5733334,-0.6316621,-3.7066667
1.8218511,-0.38005477,-3.7824936
1.8476876,-0.38005477,-3.80916
1.8743542,-0.3620545,-3.8133333
1.8933334,-0.33997107,-3.7866669
1.5911212,-0.6385702,-3.767275
1.424654,-0.019607013,-4.5333333
1.4313103,-0.039256323,-4.5066667
1.4444665,-0.06592299,-4.5066667
1.4497671,-0.07294034,-4.5333333
1.6196494,-0.026666667,-4.5066667
1.6285983,-0.053333335,-4.5333333
1.4342171,-0.13747875,-4.4889007
1.4560833,-0.13747874,-4.5155673
1.46055,-0.11081207,-4.5066667
1.4658505,-0.10666667,-4.5333333
1.6235213,-0.10666667,-4.5066667
1.6273859,-0.13333334,-4.5333333
1.4560833,-0.1847546,-4.542234
1.6168967,-0.18666668,-4.5066667
1.6199156,-0.21333334,-4.5333333
1.9131631,-0.23303142,-4.5333333
1.9010442,-0.23563695,-4.5066667
1.4559251,-0.2769988,-4.5066667
1.4698312,-0.2948678,-4.5333333
1.6228923,-0.26666668,-4.5066667
1.6250651,-0.29333332,-4.5333333
1.7556729,-0.31389502,-4.4855766
1.7736304,-0.31389502,-4.5122433
1.800297,-0.30149853,-4.5333333
1.8133334,-0.28792837,-4.5066667
1.8743777,-0.2530965,-4.5066667
1.8598297,-0.26736662,-4.5333333
1.49169,-0.34666666,-4.5066667
1.4882481,-0.37333336,-4.5333333
1.6231989,-0.34666666,-4.5066667
1.6203573,-0.37333336,-4.5333333
1.7556729,-0.3308585,-4.4855766
1.7676785,-0.35752517,-4.4855766
1.7813085,-0.34666666,-4.5122433
1.792249,-0.37333336,-4.5333333
1.4956269,-0.42666668,-4.5066667
1.495799,-0.45333335,-4.5333333
1.6157336,-0.42666668,-4.5066667
1.6180487,-0.45333335,-4.5333333
1.7594558,-0.46135855,-4.5333333
1.7548681,-0.46266517,-4.5066667
1.7786187,-0.4093318,-4.5066667
1.7709403,-0.43469188,-4.5333333
1.5139613,-0.5547494,-4.5290914
1.5093255,-0.5280828,-4.5333333
1.5039438,-0.50666666,-4.5066667
1.522709,-0.5547494,-4.555758
1.617193,-0.50666666,-4.5066667
1.6253209,-0.53333336,-4.5333333
1.7473102,-0.50666666,-4.5066667
1.7436937,-0.53333336,-4.5333333
1.5170962,-0.5957797,-4.555758
1.5110575,-0.58666664,-4.5290914
1.4982932,-0.61333334,-4.5066667
1.522709,-0.5691131,-4.555758
1.6308041,-0.58666664,-4.5066667
1.6397467,-0.61333334,-4.5333333
1.7400464,-0.58666664,-4.5066667
1.7381614,-0.61333334,-4.5333333
1.3800105,-0.012728099,-4.605103
1.4066772,-0.03233511,-4.5866666
1.4133334,-0.047615636,-4.613333
1.4453006,-0.0615542,-4.5866666
1.450966,-0.06861385,-4.613333
1.675429,-0.047823943,-4.6312156
1.6584227,-0.026666667,-4.604549
1.6471287,-0.053333335,-4.5866666
1.6872553,-0.021157274,-4.6312156
1.4670494,-0.10666667,-4.5866666
1.4713298,-0.13333334,-4.613333
1.6448982,-0.10666667,-4.5866666
1.6502478,-0.13333334,-4.613333
1.8348259,-0.08486022,-4.6358905
1.8441098,-0.08486022,-4.6358905
1.4535534,-0.23808792,-4.587872
1.4696367,-0.21142125,-4.5866666
1.4792175,-0.18666668,-4.613333
1.6357542,-0.18666668,-4.5866666
1.645188,-0.21333334,-4.613333
1.9095309,-0.23636886,-4.613333
1.9026937,-0.23739447,-4.5866666
1.453906,-0.26820114,-4.561206
1.4674593,-0.26666668,-4.587872
1.4848336,-0.29333332,-4.613333
1.6315222,-0.26666668,-4.5866666
1.6353428,-0.29333332,-4.613333
1.8235874,-0.28886747,-4.613333
1.8105509,-0.3076035,-4.5866666
1.876027,-0.25427017,-4.5866666
1.8561975,-0.2622008,-4.613333
1.4837633,-0.34666666,-4.5866666
1.4795696,-0.37333336,-4.613333
1.6260442,-0.34666666,-4.5866666
1.6300466,-0.37333336,-4.613333
1.7948248,-0.34666666,-4.5866666
1.7975558,-0.37333336,-4.613333
1.4842263,-0.42666668,-4.5866666
1.4951354,-0.45333335,-4.613333
1.6266749,-0.42666668,-4.5866666
1.6289213,-0.45333335,-4.613333
1.7594558,-0.47869334,-4.5611253
1.7702471,-0.47869334,-4.5877914
1.7811877,-0.45202667,-4.5866666
1.7975488,-0.42666668,-4.613333
1.5120898,-0.48806867,-4.613333
1.5153642,-0.5094848,-4.5866666
1.522709,-0.53615147,-4.5866666
1.5320343,-0.54140204,-4.613333
1.628423,-0.50666666,-4.5866666
1.6372896,-0.53333336,-4.613333
1.7517956,-0.53333336,-4.573261
1.7512517,-0.50666666,-4.5611253
1.7808719,-0.50666666,-4.6144586
1.7706246,-0.53333336,-4.599928
1.5170962,-0.6224464,-4.574106
1.522717,-0.6224464,-4.6007733
1.525426,-0.5957797,-4.5866666
1.5347514,-0.58666664,-4.613333
1.6431304,-0.58666664,-4.5866666
1.6462669,-0.61333334,-4.613333
1.7542739,-0.60392135,-4.6254697
1.7460698,-0.58666664,-4.598803
1.7366269,-0.61333334,-4.5866666
1.7706246,-0.5772547,-4.6254697
1.9083468,-0.6294993,-4.6282334
1.4456656,-0.06861385,-4.6501107
1.675429,-0.074490614,-4.6445894
1.6885039,-0.074490614,-4.671256
1.695759,-0.047823943,-4.666667
1.7066672,-0.026666667,-4.693333
1.4552466,-0.13333334,-4.6562095
1.4456656,-0.10666667,-4.6663203
1.6740556,-0.13333334,-4.651882
1.6694845,-0.10666667,-4.6445894
1.6970476,-0.10666667,-4.6979227
1.6885437,-0.13333334,-4.6785493
1.8324865,-0.084653,-4.693333
1.8348259,-0.08951321,-4.666667
1.8464489,-0.08486022,-4.666667
1.8423393,-0.08951321,-4.693333
1.4495809,-0.16614161,-4.682876
1.4621835,-0.1928083,-4.693333
1.4757369,-0.21333334,-4.666667
1.6701971,-0.21333334,-4.664422
1.6642526,-0.18666668,-4.647293
1.6920376,-0.18666668,-4.700626
1.683494,-0.21333334,-4.6910887
1.9139493,-0.23560308,-4.693333
1.9034799,-0.2389744,-4.666667
1.48353,-0.26666668,-4.666667
1.4892246,-0.29333332,-4.693333
1.6647562,-0.29333332,-4.676046
1.6549531,-0.26666668,-4.657129
1.7064385,-0.26666668,-4.710462
1.7029448,-0.29333332,-4.702713
1.8182205,-0.29407504,-4.693333
1.8018079,-0.301264,-4.666667
1.8768132,-0.24793066,-4.666667
1.8606158,-0.26740834,-4.693333
1.4863342,-0.34666666,-4.666667
1.4944377,-0.37333336,-4.693333
1.6643922,-0.37333336,-4.6768856
1.6491482,-0.34666666,-4.658917
1.7114457,-0.34666666,-4.7122507
1.6885009,-0.37333336,-4.7035522
1.7915025,-0.34666666,-4.666667
1.8012466,-0.37333336,-4.693333
1.5167258,-0.45569575,-4.6790643
1.5155364,-0.42902908,-4.693333
1.498582,-0.42666668,-4.666667
1.5259666,-0.45569575,-4.705731
1.6746823,-0.44563043,-4.711302
1.6590743,-0.42666668,-4.6846347
1.6422195,-0.45333335,-4.666667
1.6885009,-0.41896376,-4.711302
1.8066064,-0.42666668,-4.666667
1.8067509,-0.45333335,-4.693333
1.5167258,-0.48806867,-4.652397
1.5293254,-0.51473534,-4.652397
1.535292,-0.50666666,-4.6790643
1.5435526,-0.53333336,-4.693333
1.6702511,-0.5504998,-4.6884737
1.6649333,-0.5238331,-4.693333
1.6480783,-0.50666666,-4.666667
1.6831216,-0.5504998,-4.7151403
1.7973776,-0.50666666,-4.666667
1.8012272,-0.53333336,-4.693333
1.540303,-0.58666664,-4.666667
1.5333416,-0.61333334,-4.693333
1.6670303,-0.61333334,-4.6852813
1.6572813,-0.58666664,-4.661807
1.6909988,-0.58666664,-4.7151403
1.6878772,-0.61333334,-4.711948
1.7542739,-0.630588,-4.6521964
1.7674414,-0.630588,-4.678863
1.778066,-0.60392135,-4.666667
1.7921629,-0.58666664,-4.693333
1.9099642,-0.6197552,-4.693333
1.898311,-0.6294993,-4.666667
1.4540591,-0.05893743,-4.780124
1.7124791,-0.026666667,-4.746667
1.7148107,-0.053333335,-4.7733335
1.8376608,-0.05525501,-4.749006
1.8351841,-0.028588347,-4.7733335
1.8295541,-0.026666667,-4.746667
1.8419218,-0.028588347,-4.7756724
1.8442612,-0.053333335,-4.749006
1.8491355,-0.026666667,-4.746667
1.4807259,-0.10396356,-4.780124
1.4933335,-0.13063024,-4.7748923
1.4666667,-0.13333334,-4.75593
1.5216916,-0.1572969,-4.794768
1.7102873,-0.10666667,-4.746667
1.7139386,-0.13333334,-4.7733335
1.8376608,-0.084653,-4.722339
1.8382694,-0.15887487,-4.7976456
1.8423393,-0.084653,-4.722339
1.8411251,-0.15887487,-4.7976456
1.5216916,-0.17426474,-4.794768
1.7041928,-0.18666668,-4.746667
1.7088413,-0.21333334,-4.7733335
1.8382694,-0.16879871,-4.7976456
1.9139493,-0.23662868,-4.7286835
1.8411251,-0.16879871,-4.7976456
1.5242857,-0.299487,-4.789738
1.719631,-0.26666668,-4.746667
1.7312852,-0.29333332,-4.7733335
1.830917,-0.2933402,-4.7733335
1.8091373,-0.31281105,-4.746667
1.8872825,-0.25947773,-4.7286835
1.8933334,-0.27324268,-4.75535
1.8666667,-0.28043848,-4.7733335
1.5300354,-0.34666666,-4.789738
1.5257498,-0.37333336,-4.764922
1.7265935,-0.34666666,-4.746667
1.7172086,-0.37333336,-4.7733335
1.8024688,-0.34666666,-4.746667
1.8112524,-0.37333336,-4.7733335
1.5259666,-0.42902908,-4.7218513
1.5317162,-0.42666668,-4.748518
1.543395,-0.45333335,-4.7733335
1.6746823,-0.47229713,-4.7258406
1.690632,-0.47229713,-4.7525067
1.6991328,-0.44563043,-4.746667
1.7126927,-0.42666668,-4.7733335
1.8101745,-0.42666668,-4.746667
1.8107296,-0.45333335,-4.7733335
1.5459061,-0.50666666,-4.746667
1.5519487,-0.53333336,-4.7733335
1.6746823,-0.49716642,-4.7258406
1.6831216,-0.5238331,-4.7258406
1.6937536,-0.50666666,-4.7525067
1.7048119,-0.53333336,-4.7733335
1.8111557,-0.50666666,-4.746667
1.806309,-0.53333336,-4.7733335
1.5426339,-0.58666664,-4.746667
1.5410287,-0.61333334,-4.7733335
1.7020574,-0.58666664,-4.746667
1.7159334,-0.61333334,-4.7733335
1.7931974,-0.58666664,-4.746667
1.7870413,-0.61333334,-4.7733335
1.4540591,-0.05893743,-4.8242073
1.7573645,-0.046020802,-4.8733783
1.7437651,-0.026666667,-4.846712
1.7303385,-0.053333335,-4.826667
1.78419,-0.019354137,-4.846712
1.8108567,-0.021275818,-4.826667
1.8133334,-0.023196658,-4.8533335
1.4540591,-0.08949276,-4.850874
1.4807259,-0.113456324,-4.826667
1.4933335,-0.13582182,-4.8533335
1.5216916,-0.15299574,-4.826667
1.5253363,-0.15569884,-4.8533335
1.7294263,-0.10666667,-4.826667
1.7322077,-0.13333334,-4.8533335
1.8382694,-0.15887487,-4.80179
1.5294403,-0.22759807,-4.8292074
1.5311315,-0.20093141,-4.826667
1.5347764,-0.18666668,-4.8533335
1.7213688,-0.18666668,-4.826667
1.7225485,-0.21333334,-4.8533335
1.8382694,-0.16879871,-4.80179
1.8411251,-0.16879871,-4.80179
1.5242857,-0.27282032,-4.8025413
1.5337259,-0.26666668,-4.8292074
1.5381906,-0.29333332,-4.8533335
1.7216753,-0.26666668,-4.826667
1.7222009,-0.29333332,-4.8533335
1.830917,-0.30052912,-4.818841
1.8455514,-0.30052912,-4.8455076
1.872218,-0.29315266,-4.8533335
1.8933334,-0.28025097,-4.826667
1.5244647,-0.35588685,-4.8640027
1.5302143,-0.37333336,-4.837336
1.5345001,-0.34666666,-4.826667
1.722426,-0.34666666,-4.826667
1.7236863,-0.37333336,-4.8533335
1.8366947,-0.36194113,-4.8721747
1.8276119,-0.34666666,-4.8455076
1.8146158,-0.37333336,-4.826667
1.8455514,-0.33527446,-4.8721747
1.5257498,-0.40898812,-4.837336
1.5379193,-0.43565476,-4.8533335
1.5495981,-0.45333335,-4.826667
1.7205999,-0.42666668,-4.826667
1.7235104,-0.45333335,-4.8533335
1.8338864,-0.46969572,-4.8483787
1.8305813,-0.44302908,-4.8533335
1.8175853,-0.42666668,-4.826667
1.841665,-0.46969572,-4.875045
1.5558577,-0.50666666,-4.826667
1.5554638,-0.53333336,-4.8533335
1.7181609,-0.50666666,-4.826667
1.7227427,-0.53333336,-4.8533335
1.8249923,-0.53333336,-4.842816
1.8188788,-0.50666666,-4.821712
1.84672,-0.50666666,-4.875045
1.8450552,-0.53333336,-4.8694825
1.5499496,-0.58666664,-4.826667
1.5466217,-0.61333334,-4.8533335
1.7232702,-0.58666664,-4.826667
1.7299889,-0.61333334,-4.8533335
1.8223425,-0.59322625,-4.8744373
1.8073349,-0.58666664,-4.8477707
1.788609,-0.61333334,-4.826667
1.7573645,-0.07268747,-4.8832636
1.8153223,-0.026666667,-4.9374113
1.7982682,-0.046020802,-4.9107447
1.8133334,-0.021274978,-4.884078
1.7716016,-0.07268747,-4.90993
1.5236448,-0.15569884,-4.8869967
1.7493545,-0.13333334,-4.9021225
1.7467191,-0.10666667,-4.8832636
1.7820714,-0.10666667,-4.9365973
1.7704699,-0.13333334,-4.928789
1.533085,-0.21333334,-4.9011784
1.5236448,-0.18666668,-4.9081755
1.7466681,-0.21333334,-4.915621
1.7360226,-0.18666668,-4.898858
1.7840893,-0.18666668,-4.952192
1.7736193,-0.21333334,-4.9422874
1.9162686,-0.18508981,-4.9581113
1.5294403,-0.2508545,-4.927845
1.5337678,-0.27752116,-4.9333334
1.5382324,-0.29333332,-4.9066668
1.7470517,-0.29333332,-4.915882
1.7337197,-0.26666668,-4.8967624
1.7832562,-0.26666668,-4.950096
1.7696368,-0.29333332,-4.9425488
1.9191464,-0.2904672,-4.9333334
1.898031,-0.3126235,-4.9066668
1.759152,-0.37085333,-4.9524527
1.7462035,-0.34666666,-4.925786
1.7359451,-0.37333336,-4.9066668
1.8366947,-0.38860777,-4.8944764
1.7696368,-0.34418666,-4.9524527
1.8431481,-0.38860777,-4.921143
1.8486996,-0.36194113,-4.9066668
1.8745126,-0.34666666,-4.9333334
1.7498038,-0.45747763,-4.924421
1.7489555,-0.43081096,-4.9333334
1.7386972,-0.42666668,-4.9066668
1.8366947,-0.4163624,-4.8944764
1.7658049,-0.45747763,-4.9510875
1.841665,-0.44302908,-4.8944764
1.8448132,-0.42666668,-4.921143
1.8569897,-0.45333335,-4.9333334
1.7513785,-0.5156183,-4.9510875
1.7411822,-0.50666666,-4.924421
1.7297295,-0.53333336,-4.9066668
1.7658049,-0.48895168,-4.9510875
1.8588965,-0.50666666,-4.9066668
1.8603915,-0.53333336,-4.9333334
1.5528277,-0.58666664,-4.9066668
1.5543156,-0.61333334,-4.9333334
1.6769334,-0.63847405,-4.958047
1.7548906,-0.6392205,-4.9590373
1.7158225,-0.6118074,-4.9333334
1.7310367,-0.58666664,-4.9066668
1.6977773,-0.63847405,-4.9313803
1.8223425,-0.6198929,-4.906329
1.7759569,-0.6392205,-4.9590373
1.8060893,-0.026666667,-4.9866667
1.8082829,-0.053333335,-5.0133333
1.8956622,-0.0132724745,-5.0133333
1.9080656,-0.028868403,-4.9866667
1.5225962,-0.15685456,-5.035047
1.8013192,-0.10666667,-4.9866667
1.8119845,-0.13333334,-5.0133333
1.9162686,-0.15506795,-4.9619536
1.5276535,-0.18666668,-5.035047
1.5250573,-0.21333334,-5.019557
1.8063562,-0.18666668,-4.9866667
1.813136,-0.21333334,-5.0133333
1.9162686,-0.18508981,-4.9619536
1.8005062,-0.26666668,-4.9866667
1.7970248,-0.29333332,-5.0133333
1.9191464,-0.29784366,-4.9843316
1.759152,-0.39751998,-4.962461
1.7713778,-0.39751998,-4.9891276
1.7810143,-0.37085333,-4.9866667
1.7911527,-0.34666666,-5.0133333
1.9025296,-0.34672466,-5.037665
1.9016758,-0.34666666,-5.0109982
1.8781573,-0.37333336,-4.9866667
1.759152,-0.4041443,-4.962461
1.7658049,-0.43081096,-4.962461
1.7771826,-0.42666668,-4.9891276
1.7940263,-0.45333335,-5.0133333
1.90551,-0.476486,-5.009577
1.8880394,-0.44981933,-5.0133333
1.8645208,-0.42666668,-4.9866667
1.6025431,-0.55409753,-5.03696
1.7513785,-0.54228497,-4.980151
1.7637134,-0.54228497,-5.0068183
1.7695183,-0.5156183,-4.9866667
1.7863623,-0.50666666,-5.0133333
1.911121,-0.5136562,-5.0362434
1.8966308,-0.50666666,-5.009577
1.873124,-0.53333336,-4.9866667
1.5861062,-0.61333334,-5.0092134
1.5723008,-0.58666664,-4.9836264
1.6302965,-0.6118074,-5.0133333
1.65442,-0.63847405,-4.989751
1.6292099,-0.58514076,-5.0102935
1.6502666,-0.63847405,-4.9855866
1.6266667,-0.6118074,-5.0092134
1.6980453,-0.6118074,-4.963084
1.7104063,-0.61333334,-4.989751
1.7370731,-0.58666664,-5.0068183
1.7456944,-0.592623,-5.0334845
1.7548906,-0.6392205,-4.9606957
1.7637134,-0.56595635,-5.0334845
1.7759569,-0.6392205,-4.9606957
1.6714693,-0.07157446,-5.1080484
1.8542633,-0.026666667,-5.0627995
1.88093,-0.0412487,-5.0744767
1.9075967,-0.02785451,-5.0666666
1.8853983,-0.06791537,-5.1011434
1.5225962,-0.14488696,-5.0666666
1.5305028,-0.14803241,-5.0933332
1.6714693,-0.087692924,-5.1080484
1.6948819,-0.087692924,-5.1080484
1.8317473,-0.12879872,-5.1011434
1.8243283,-0.10666667,-5.0744767
1.8199285,-0.13333334,-5.0666666
1.8587315,-0.10213205,-5.1011434
1.5279064,-0.20104042,-5.102385
1.5329639,-0.21333334,-5.0757184
1.53556,-0.18666668,-5.0666666
1.8179306,-0.18666668,-5.0666666
1.81303,-0.21333334,-5.0933332
1.6034886,-0.31536862,-5.111719
1.8047543,-0.26666668,-5.0666666
1.8062152,-0.29333332,-5.0933332
1.6126499,-0.34666666,-5.111719
1.6091614,-0.37333336,-5.0964146
1.8002267,-0.34666666,-5.0666666
1.8153802,-0.37333336,-5.0933332
1.8946326,-0.35602295,-5.0933332
1.8771621,-0.37339133,-5.0666666
1.6091614,-0.4195793,-5.104696
1.8135132,-0.42666668,-5.0666666
1.8270687,-0.45333335,-5.0933332
1.8771621,-0.4176295,-5.0933332
1.9025296,-0.44078216,-5.0666666
1.6025431,-0.5530662,-5.0666666
1.6027465,-0.5589686,-5.0933332
1.8054904,-0.50666666,-5.0666666
1.8050576,-0.53333336,-5.0933332
1.911121,-0.54032284,-5.055371
1.447464,-0.63530463,-5.109954
1.585896,-0.61409974,-5.0948973
1.6002035,-0.5874331,-5.0948973
1.6012901,-0.61333334,-5.0682306
1.6038333,-0.58666664,-5.0666666
1.7456944,-0.61928964,-5.0509176
1.7858828,-0.61928964,-5.0775847
1.7895963,-0.592623,-5.0666666
1.8060074,-0.58666664,-5.0933332
1.8943473,-0.5965609,-5.1087046
1.8854684,-0.58666664,-5.082038
1.859373,-0.61333334,-5.0666666
2.8790011,-0.053333335,-2.5772295
2.8603783,-0.026666667,-2.5765195
2.9273388,-0.008305632,-2.6298528
2.9333334,-0.0349723,-2.6223187
2.9066668,-0.053333335,-2.5963624
2.967534,-0.061638962,-2.632466
2.8790011,-0.08091052,-2.5607104
2.8888276,-0.10757719,-2.5607104
2.915494,-0.13333334,-2.576391
2.9333334,-0.10666667,-2.5955236
2.97866,-0.10666667,-2.632466
2.9711263,-0.13333334,-2.62148
2.9427624,-0.21333334,-2.590842
2.924923,-0.18666668,-2.5756807
2.9891765,-0.18666668,-2.6290143
2.9780502,-0.21333334,-2.6175084
2.9427624,-0.26166767,-2.575161
3.0185213,-0.3051988,-2.604769
2.991855,-0.30019978,-2.5866668
3.0047166,-0.27353308,-2.6133335
2.9780502,-0.26166767,-2.6018279
3.0486212,-0.3051988,-2.6314354
3.0232928,-0.37333336,-2.5935826
3.001814,-0.34666666,-2.5781024
3.0603795,-0.34666666,-2.6314354
3.0517588,-0.37333336,-2.6202495
3.0258272,-0.45333335,-2.5878875
3.0091197,-0.42666668,-2.5754807
3.0689397,-0.42666668,-2.628814
3.0571811,-0.45333335,-2.6145544
3.0264804,-0.53333336,-2.58398
3.0123076,-0.50666666,-2.5724072
3.0789292,-0.50666666,-2.6257403
3.061748,-0.53333336,-2.6106467
3.0286016,-0.61333334,-2.581821
3.0150816,-0.58666664,-2.571573
3.0779173,-0.58666664,-2.6249065
3.0561693,-0.61333334,-2.6084876
2.9540057,-0.008305632,-2.645171
2.967534,-0.0349723,-2.645171
2.9942007,-0.053333335,-2.6610227
3.0133333,-0.026666667,-2.6841638
3.0543978,-0.026666667,-2.7164752
3.0508728,-0.053333335,-2.7056596
3.0244598,-0.13333334,-2.6707366
3.005327,-0.10666667,-2.6558516
3.0633755,-0.10666667,-2.7091851
3.0525026,-0.13333334,-2.6974034
3.0313835,-0.21333334,-2.6667364
3.0158432,-0.18666668,-2.6548853
3.0615702,-0.18666668,-2.7082186
3.0490673,-0.21333334,-2.693403
3.0313835,-0.25186545,-2.6518512
3.0486212,-0.2785321,-2.6518512
3.0576885,-0.26666668,-2.6785178
3.0623858,-0.29333332,-2.6933334
3.0650768,-0.34666666,-2.6666667
3.0807955,-0.37333336,-2.6933334
3.0304613,-0.46681067,-2.7099242
3.1120262,-0.45830345,-2.7114837
3.0815203,-0.440144,-2.6933334
3.0932786,-0.42666668,-2.6666667
3.0571811,-0.46681067,-2.6832576
3.1281316,-0.45830345,-2.7114837
3.1120262,-0.48993263,-2.7114837
3.0648534,-0.50666666,-2.6832576
3.0866015,-0.53333336,-2.6666667
3.0476727,-0.5273339,-2.7099242
3.1281316,-0.48993263,-2.7114837
3.1012118,-0.62866634,-2.7096453
3.063842,-0.6017554,-2.6933334
3.0855901,-0.58666664,-2.6666667
3.0561693,-0.628422,-2.6894042
3.1312976,-0.62866634,-2.7096453
3.104206,-0.067320704,-2.7628393
3.0921566,-0.04065405,-2.7733333
3.0690148,-0.026666667,-2.746667
3.131615,-0.06732072,-2.7895062
3.131615,-0.0924998,-2.7895062
3.1281316,-0.4509137,-2.746667
3.1370494,-0.47261032,-2.7733333
3.1370494,-0.48993263,-2.746667
3.1289182,-0.5010592,-2.7733333
3.1312976,-0.62866634,-2.7401965
2.572131,-0.22334509,-3.027865
2.5733385,-0.26666668,-3.027865
2.5612078,-0.29333332,-3.0267236
2.5612078,-0.32130828,-3.0388587
2.6254644,-0.2255585,-3.0821948
2.5987976,-0.20890358,-3.0666668
2.5866668,-0.19720608,-3.0933335
2.6508734,-0.2255585,-3.1088617
2.614541,-0.29333332,-3.0685952
2.6000054,-0.26666668,-3.0555282
2.6638718,-0.26666668,-3.1088617
2.6529987,-0.29333332,-3.095262
2.5878744,-0.32130828,-3.053067
2.5866668,-0.34797496,-3.0645535
2.6133335,-0.37333336,-3.0876184
2.6568217,-0.34666666,-3.1064005
2.6438231,-0.37333336,-3.1027985
2.6316838,-0.43440548,-3.1163983
2.605017,-0.45333335,-3.1044695
2.5866668,-0.42666668,-3.0892892
2.5783505,-0.5040391,-3.1080713
2.5728662,-0.2528661,-3.1850908
2.7063317,-0.29333332,-3.1488616
2.6905382,-0.26666668,-3.132406
2.7103162,-0.36333808,-3.189789
2.696648,-0.34666666,-3.1631224
2.6738045,-0.37333336,-3.1466668
2.729168,-0.3366714,-3.189789
2.6316838,-0.46107215,-3.1273632
2.605017,-0.5040391,-3.1273632
2.5866668,-0.5307058,-3.1297362
2.6133335,-0.53333336,-3.1443639
2.6133335,-0.58666664,-3.1574938
2.5866668,-0.61333334,-3.1513426
4.2340655,3.7673252,-3.2696893
4.213333,3.7183983,-3.230796
4.2022204,3.6917317,-3.2144403
4.2073994,3.7450652,-3.2430227
4.1784177,3.6917317,-3.2380104
4.19915,3.7183983,-3.2533333
4.228887,3.6673176,-3.2144403
4.1784177,3.6635845,-3.264677
4.3023524,3.6605957,-3.2610466
4.2559276,3.6673176,-3.2144403
4.343315,3.6605957,-3.2610466
4.4720674,3.6533334,-3.2375743
4.4601703,3.6266668,-3.2573144
4.0972276,3.5733333,-3.229682
4.109035,3.5466669,-3.2120612
4.158098,3.5223045,-3.278165
4.1630344,3.5223045,-3.278165
4.4681034,3.5733333,-3.2365532
4.45617,3.5466669,-3.2592387
4.0700464,3.4995897,-3.2120612
4.158098,3.5180755,-3.278165
4.0918074,3.4995897,-3.2120612
4.1630344,3.5180755,-3.278165
4.468066,3.5062006,-3.2592387
4.0779295,3.3690307,-3.2028158
4.0827208,3.3690307,-3.2028158
4.3960886,3.3689172,-3.2059577
4.4076657,3.3689172,-3.2059577
4.077302,3.3066669,-3.2070017
4.075232,3.3333333,-3.2028158
4.085984,3.3066669,-3.2041857
4.0827208,3.3333333,-3.2070017
4.373551,3.3066669,-3.2225497
4.36964,3.3333333,-3.2059577
4.424475,3.3066669,-3.2165923
4.4076657,3.3333333,-3.2225497
4.077302,3.2769213,-3.2041857
4.083264,3.2769213,-3.2041857
4.396247,3.2266667,-3.2271528
4.3697977,3.2533333,-3.2165923
4.416809,3.2533333,-3.2271528
4.4434757,3.239151,-3.2372274
4.4701424,3.257915,-3.2266667
4.448772,3.2124841,-3.263894
4.133333,3.7655249,-3.3513086
4.1066666,3.768746,-3.356544
4.2073994,3.7673252,-3.3014312
4.186667,3.77285,-3.3280978
4.213333,3.7769406,-3.3333333
4.302755,3.7866669,-3.3269424
4.276088,3.7907574,-3.3305566
4.249421,3.7714152,-3.3066669
4.291566,3.8174238,-3.357223
4.19915,3.7066667,-3.299323
4.1807323,3.7333333,-3.320754
4.3023524,3.7066667,-3.326118
4.285107,3.7333333,-3.3030527
4.3684864,3.7066667,-3.3030658
4.3451715,3.7333333,-3.326118
4.3761115,3.7339375,-3.3344588
4.4094596,3.7339375,-3.3077922
4.413109,3.707271,-3.3333333
4.431843,3.7066667,-3.3066669
3.9150774,3.6377141,-3.3569684
3.8884106,3.6266668,-3.347915
3.8666668,3.6533334,-3.3372252
3.9252841,3.6643808,-3.3569684
4.1784177,3.6635845,-3.299323
4.3023524,3.6605957,-3.3030658
4.343315,3.6605957,-3.3030658
4.393297,3.6155844,-3.3557775
4.4036493,3.6422508,-3.3557775
4.41842,3.6266668,-3.3291109
4.4371533,3.6533334,-3.3066669
3.8884106,3.5893238,-3.350947
3.8933334,3.562657,-3.3487635
3.8666668,3.5466669,-3.3405893
3.927203,3.5359905,-3.3578167
4.158098,3.5223045,-3.283344
4.1630344,3.5223045,-3.283344
4.393297,3.5914245,-3.3557775
4.41477,3.5914245,-3.3291109
4.4246473,3.5647578,-3.3333333
4.43938,3.5466669,-3.3066669
3.8933334,3.4933333,-3.344909
3.8666668,3.4666667,-3.3352444
3.9398396,3.4933333,-3.3578167
3.9326367,3.4666667,-3.3530831
4.158098,3.5180755,-3.283344
4.1630344,3.5180755,-3.283344
4.451277,3.4999504,-3.3333333
4.468066,3.4861505,-3.3066669
3.8933334,3.4133334,-3.335335
3.8666668,3.3866668,-3.326183
3.9593036,3.4216015,-3.3552663
3.9733334,3.394935,-3.353164
3.9466667,3.3866668,-3.3450801
4.007358,3.3682683,-3.3578975
4.4724603,3.3743365,-3.3529534
3.8933334,3.3333333,-3.3165178
3.8666668,3.3066669,-3.3056982
3.9733334,3.3333333,-3.343132
3.9466667,3.3066669,-3.3237216
4.016267,3.3333333,-3.3578975
4.0089087,3.3066669,-3.3512154
4.4724603,3.3333333,-3.3307238
4.4558115,3.3066669,-3.3377702
3.8933334,3.2533333,-3.3094416
3.8666668,3.2266667,-3.3092961
3.9733334,3.2533333,-3.3267865
3.9466667,3.2266667,-3.323326
4.0177207,3.2533333,-3.3533182
4.008812,3.2266667,-3.3482993
4.155162,3.2059112,-3.3575566
4.1772456,3.2059112,-3.3575566
4.385829,3.2081938,-3.3536358
4.410018,3.2348604,-3.3536358
4.4366846,3.2533333,-3.3314059
4.448772,3.2266667,-3.3047392
4.4754386,3.239151,-3.284437
4.104056,3.763221,-3.3988392
4.1307225,3.7662606,-3.4133334
4.133333,3.7717855,-3.3866668
4.213333,3.7945335,-3.3866668
4.186667,3.7934825,-3.4133334
4.2648997,3.8156755,-3.3866668
4.291566,3.811585,-3.405801
4.318233,3.8133333,-3.3936903
4.2761693,3.784918,-3.4324675
4.3253093,3.7866669,-3.3791344
4.322531,3.8133333,-3.3936903
3.9786174,3.7066667,-3.3704553
3.9730003,3.7333333,-3.3604705
4.0533333,3.7333333,-3.3948975
4.0266666,3.7066667,-3.3927093
4.1307225,3.7381217,-3.425506
4.133333,3.711455,-3.4251432
4.1066666,3.7066667,-3.4207306
4.1618476,3.6847885,-3.4396372
4.3028364,3.7333333,-3.4268746
4.2937675,3.7066667,-3.4344068
4.3761115,3.707271,-3.362889
4.349445,3.7333333,-3.3820233
4.346667,3.7066667,-3.403097
4.4036493,3.6806042,-3.362889
3.9150774,3.6110473,-3.3617282
3.9519506,3.6643808,-3.3699846
3.9466667,3.6377141,-3.3717127
3.9733334,3.6266668,-3.3827558
4.0533333,3.6533334,-3.4098558
4.0266666,3.6266668,-3.3986447
4.133333,3.6533334,-3.4299884
4.1066666,3.6266668,-3.4213018
4.1826735,3.6533334,-3.4396372
4.1808257,3.6266668,-3.4344006
4.310931,3.6609905,-3.4344068
4.3738265,3.6155844,-3.3866668
4.353863,3.6422508,-3.4077404
4.3733335,3.6689177,-3.3839626
4.327196,3.6343236,-3.4344068
4.4036493,3.6689177,-3.362889
3.9150774,3.5893238,-3.3617282
3.927203,3.562657,-3.3617282
3.9538696,3.5466669,-3.3683672
3.9733334,3.5733333,-3.3794103
4.0533333,3.5733333,-3.4004216
4.0266666,3.5466669,-3.3894436
4.133333,3.5733333,-3.4230993
4.1066666,3.5466669,-3.4134307
4.190593,3.5733333,-3.4347637
4.1697664,3.5466669,-3.432149
4.393297,3.5647578,-3.3812358
4.3890924,3.5466669,-3.4079025
4.369622,3.5733333,-3.4133334
4.4098773,3.5380914,-3.3812358
3.98597,3.4666667,-3.3716435
3.9665062,3.4933333,-3.3666391
4.0533333,3.4933333,-3.3888302
4.0266666,3.4666667,-3.3820734
4.133333,3.4933333,-3.4100006
4.1066666,3.4666667,-3.396378
4.196433,3.5050957,-3.437385
4.213333,3.4784288,-3.4341338
4.186667,3.4666667,-3.421654
4.2933335,3.4449825,-3.4349236
4.266667,3.456745,-3.4367485
4.342462,3.4716492,-3.438175
4.3691287,3.4933333,-3.432744
4.3733335,3.4666667,-3.4192798
4.4632106,3.4732835,-3.3646722
4.436544,3.4933333,-3.385908
4.4266667,3.4666667,-3.39911
3.98597,3.4216015,-3.3650048
4.007358,3.394935,-3.3650048
4.034025,3.3866668,-3.3702655
4.0533333,3.4133334,-3.380695
4.133333,3.4133334,-3.403577
4.1066666,3.3866668,-3.3946505
4.213333,3.4133334,-3.4232605
4.186667,3.3866668,-3.4188058
4.2933335,3.4133334,-3.4239802
4.266667,3.3866668,-3.424797
4.3733335,3.4133334,-3.4199154
4.346667,3.3866668,-3.4224365
4.445793,3.3743365,-3.3818715
4.4533334,3.4010031,-3.3865438
4.4266667,3.4133334,-3.399746
4.062242,3.3066669,-3.3747456
4.042934,3.3333333,-3.3652606
4.133333,3.3333333,-3.3965526
4.1066666,3.3066669,-3.3870776
4.213333,3.3333333,-3.4182858
4.186667,3.3066669,-3.4049594
4.2933335,3.3333333,-3.4131382
4.266667,3.3066669,-3.4110816
4.3733335,3.3333333,-3.4041584
4.346667,3.3066669,-3.394043
4.429145,3.3066669,-3.3665633
4.419127,3.3333333,-3.388435
4.062145,3.2266667,-3.3778472
4.0443873,3.2533333,-3.3694854
4.1284947,3.2059112,-3.368362
4.133333,3.2325778,-3.380694
4.1066666,3.2533333,-3.3901792
4.1772456,3.2325778,-3.372332
4.203912,3.2266667,-3.374161
4.213333,3.2533333,-3.3878276
4.2933335,3.2533333,-3.388
4.266667,3.2266667,-3.3780727
4.3591623,3.2081938,-3.3625767
4.3733335,3.2348604,-3.3691401
4.346667,3.2533333,-3.3808966
4.410018,3.261527,-3.3665633
4.1573896,3.7630394,-3.4410532
4.213333,3.7879577,-3.441716
4.186667,3.7630394,-3.442769
4.2495027,3.784918,-3.441716
4.1573896,3.7381217,-3.4410532
4.1618476,3.711455,-3.4410532
4.188514,3.7066667,-3.4443536
4.213333,3.7333333,-3.4460692
4.267101,3.7066667,-3.4433005
4.2495027,3.7333333,-3.4450164
4.234159,3.6266668,-3.444803
4.20934,3.6533334,-3.4433005
4.310931,3.6343236,-3.44098
4.2842646,3.6533334,-3.4442804
4.266667,3.6266668,-3.445783
4.327196,3.6076572,-3.44098
4.2230997,3.5466669,-3.4437277
4.217259,3.5733333,-3.4415033
4.2933335,3.5733333,-3.4478207
4.266667,3.5466669,-3.449065
4.349658,3.5466669,-3.4453378
4.327196,3.5733333,-3.4463177
4.2230997,3.5050957,-3.442225
4.266667,3.4834116,-3.442225
4.2933335,3.498316,-3.4475627
4.342462,3.498316,-3.4453378
3.8662157,3.8133333,-3.7473645
3.8525708,3.7866669,-3.7272992
3.8782904,3.7333333,-3.7399347
3.8657196,3.7066667,-3.7178621
3.8827758,3.6533334,-3.7379282
3.8570564,3.6266668,-3.7182786
3.8690329,3.5733333,-3.7403512
3.8519762,3.5466669,-3.72504
3.8690145,3.4933333,-3.7446892
3.8570383,3.4666667,-3.7265716
3.8729818,3.4133334,-3.7418828
